ncols        188
nrows        29
xllcorner    543362.5
yllcorner    192862.5
cellsize     25.000000000000
NODATA_value  -9999
1077.47998046875 1077.52001953125 1075.56005859375 1074.9599609375 1075.52001953125 1073.56005859375 1072 1071.0400390625 1068.0799560546875 1065.0400390625 1063.0400390625 1061.0400390625 1059.52001953125 1058.0400390625 1055.56005859375 1052.56005859375 1049.0799560546875 1044.1199951171875 1038.1199951171875 1032.1199951171875 1027.0799560546875 1022.5999755859375 1017.5999755859375 1013.5599975585937 1007.6799926757812 1001.0800170898437 996.5999755859375 992.55999755859375 988.5999755859375 983.5999755859375 979.55999755859375 976.08001708984375 972.08001708984375 967.5999755859375 963.55999755859375 959.1199951171875 955.03997802734375 952.55999755859375 949.08001708984375 944.5999755859375 940.08001708984375 936.55999755859375 934.03997802734375 931.08001708984375 926.5999755859375 922.55999755859375 918.5999755859375 914.55999755859375 912.03997802734375 909.08001708984375 905.55999755859375 902.55999755859375 900.03997802734375 897.08001708984375 893.55999755859375 890.55999755859375 888.03997802734375 885.55999755859375 882.55999755859375 878.5999755859375 875.03997802734375 872.08001708984375 868.55999755859375 865.08001708984375 861.08001708984375 858.03997802734375 855.55999755859375 852.55999755859375 850.03997802734375 848.03997802734375 846.52001953125 844.55999755859375 842.03997802734375 840.52001953125 839.03997802734375 838 837.03997802734375 835.03997802734375 833.03997802734375 831.03997802734375 828.08001708984375 825.03997802734375 822.55999755859375 819.08001708984375 815.08001708984375 811.55999755859375 808.08001708984375 805.03997802734375 803.03997802734375 800.08001708984375 796.55999755859375 793.55999755859375 790.08001708984375 787.52001953125 786.52001953125 785.03997802734375 783.03997802734375 781.03997802734375 778.55999755859375 775.08001708984375 771.55999755859375 768.55999755859375 765.55999755859375 762.55999755859375 759.08001708984375 755.55999755859375 752.55999755859375 749.55999755859375 747.03997802734375 744.55999755859375 741.55999755859375 739.03997802734375 736.55999755859375 733.55999755859375 731.03997802734375 728.55999755859375 726.03997802734375 724.03997802734375 722.52001953125 721.03997802734375 719.03997802734375 716.08001708984375 712.55999755859375 709.55999755859375 707.03997802734375 705.03997802734375 702.08001708984375 698.08001708984375 693.5999755859375 690.03997802734375 689.47998046875 690.47998046875 690.52001953125 688.08001708984375 684.55999755859375 681.08001708984375 677.08001708984375 673.55999755859375 670.55999755859375 667.08001708984375 663.55999755859375 660.55999755859375 656.5999755859375 652.08001708984375 648.08001708984375 644.08001708984375 640.55999755859375 637.55999755859375 634.55999755859375 631.55999755859375 629.03997802734375 627.03997802734375 625.52001953125 624.52001953125 624 622.55999755859375 621 621.96002197265625 623.96002197265625 623.08001708984375 621 621 621.96002197265625 623 622.03997802734375 621 620.52001953125 619.52001953125 618.03997802734375 616.03997802734375 614.03997802734375 612.52001953125 611.03997802734375 608.55999755859375 606.52001953125 605.03997802734375 603.03997802734375 601.52001953125 600.03997802734375 598.03997802734375 596.03997802734375 594.03997802734375 591.55999755859375 590 590 588.55999755859375 586.03997802734375 583.55999755859375
1076.52001953125 1075.0400390625 1072.56005859375 1071.47998046875 1071.52001953125 1069.0799560546875 1065.56005859375 1062.0799560546875 1060 1059.0400390625 1057.52001953125 1056.52001953125 1055.52001953125 1054.0400390625 1051.56005859375 1048.0799560546875 1044.0799560546875 1039.1199951171875 1033.1199951171875 1027.5999755859375 1022.5999755859375 1016.6400146484375 1010.5999755859375 1003.6799926757812 997.55999755859375 994.08001708984375 990.08001708984375 987.03997802734375 984.08001708984375 981.03997802734375 977.5999755859375 973.08001708984375 969.55999755859375 965.5999755859375 961.08001708984375 956.5999755859375 952.55999755859375 949.08001708984375 945.08001708984375 940.5999755859375 936.55999755859375 933.55999755859375 930.55999755859375 927.55999755859375 923.5999755859375 919.08001708984375 914.5999755859375 911.03997802734375 909.03997802734375 906.08001708984375 903.03997802734375 900.08001708984375 897.03997802734375 894.55999755859375 891.08001708984375 887.55999755859375 884.55999755859375 881.08001708984375 877.08001708984375 872.5999755859375 870 869.03997802734375 866.55999755859375 863.55999755859375 860.08001708984375 856.55999755859375 853.55999755859375 850.08001708984375 847.03997802734375 844.08001708984375 841.03997802734375 838.55999755859375 837 836.52001953125 835.52001953125 835 834.03997802734375 831.55999755859375 830 829.03997802734375 824.6400146484375 821 819.08001708984375 814.5999755859375 811.03997802734375 809.03997802734375 805.1199951171875 802 802 800.08001708984375 796.08001708984375 792.55999755859375 788.5999755859375 785.03997802734375 783.52001953125 782.52001953125 781.03997802734375 778.55999755859375 775.55999755859375 772.55999755859375 769.55999755859375 766.55999755859375 763.55999755859375 760.55999755859375 757.08001708984375 754.03997802734375 751.55999755859375 748.55999755859375 746.03997802734375 743.55999755859375 740.55999755859375 738.03997802734375 735.55999755859375 732.55999755859375 729.55999755859375 727.03997802734375 724.55999755859375 722.52001953125 721.03997802734375 719.03997802734375 717.03997802734375 714.55999755859375 711.55999755859375 708.55999755859375 706.03997802734375 704.03997802734375 702.03997802734375 698.1199951171875 692.5999755859375 688.55999755859375 687 686.03997802734375 684.52001953125 683.03997802734375 681.52001953125 679.08001708984375 675.08001708984375 671.55999755859375 668.55999755859375 665.08001708984375 661.08001708984375 657.55999755859375 654.08001708984375 650.08001708984375 646.55999755859375 643.08001708984375 639.55999755859375 636.55999755859375 633.55999755859375 630.55999755859375 628.03997802734375 626.03997802734375 625 624.52001953125 624 623.52001953125 623.47998046875 624.47998046875 625 624.03997802734375 623 623 623 623 622.52001953125 621.52001953125 620.52001953125 619.03997802734375 617.03997802734375 615.03997802734375 613.52001953125 612.52001953125 611.03997802734375 609.03997802734375 607.03997802734375 605.03997802734375 603.03997802734375 601.03997802734375 599.03997802734375 597.03997802734375 595.52001953125 594.52001953125 593.03997802734375 591.52001953125 590.52001953125 588.55999755859375 586.03997802734375 584.03997802734375
1077.0799560546875 1073.0799560546875 1069.56005859375 1067.0400390625 1066 1063.5999755859375 1060.0400390625 1057.56005859375 1056.47998046875 1055.0799560546875 1052.52001953125 1051.52001953125 1051 1050.0400390625 1046.5999755859375 1042.0799560546875 1038.0799560546875 1033.5999755859375 1028.5999755859375 1023.1199951171875 1014.239990234375 1006.5599975585937 1004.0399780273437 1000.5999755859375 996.55999755859375 993.55999755859375 990.08001708984375 985.5999755859375 981.08001708984375 977.55999755859375 973.5999755859375 969.55999755859375 966.08001708984375 962.08001708984375 958.08001708984375 953.5999755859375 949.55999755859375 946.08001708984375 942.55999755859375 938.5999755859375 933.5999755859375 929.55999755859375 927.03997802734375 924.08001708984375 920.08001708984375 916.08001708984375 911.5999755859375 908.03997802734375 905.08001708984375 902.03997802734375 899.55999755859375 896.55999755859375 893.55999755859375 891.03997802734375 888.08001708984375 884.08001708984375 880.55999755859375 877.55999755859375 875.03997802734375 872.08001708984375 868.55999755859375 866.03997802734375 864.52001953125 862.55999755859375 859.08001708984375 856.03997802734375 853.55999755859375 850.08001708984375 846.08001708984375 841.5999755859375 838.03997802734375 834.5999755859375 832.47998046875 832.52001953125 832 831.52001953125 830.52001953125 828.55999755859375 826.52001953125 823.5999755859375 820.52001953125 818.08001708984375 814.08001708984375 810.08001708984375 806.55999755859375 803.55999755859375 800.55999755859375 799 799 795.6400146484375 792 790.55999755859375 786.1199951171875 782.03997802734375 780.52001953125 779.03997802734375 777.03997802734375 774.55999755859375 772.03997802734375 770.03997802734375 767.08001708984375 763.55999755859375 761.03997802734375 758.55999755859375 755.08001708984375 752.03997802734375 749.55999755859375 747.03997802734375 745.03997802734375 742.08001708984375 739.03997802734375 736.55999755859375 733.55999755859375 730.55999755859375 728.03997802734375 725.55999755859375 723.03997802734375 721.03997802734375 719.03997802734375 717.03997802734375 715.03997802734375 713.03997802734375 711.03997802734375 708.08001708984375 705.03997802734375 703.03997802734375 700.55999755859375 695.6400146484375 690.08001708984375 686.55999755859375 684.03997802734375 681.55999755859375 680 680 679.03997802734375 676.08001708984375 672.55999755859375 669.55999755859375 666.08001708984375 662.08001708984375 658.55999755859375 655.55999755859375 652.55999755859375 649.08001708984375 645.08001708984375 641.55999755859375 638.55999755859375 635.55999755859375 632.55999755859375 629.55999755859375 627.03997802734375 625.52001953125 625 624.52001953125 624 624.47998046875 625 625 624.52001953125 623.03997802734375 622 622 622.47998046875 622.52001953125 621.52001953125 620.52001953125 619.52001953125 618.52001953125 617.03997802734375 615.52001953125 614.03997802734375 612.52001953125 611.03997802734375 609.03997802734375 607.03997802734375 605.03997802734375 603.03997802734375 601.03997802734375 598.55999755859375 596.03997802734375 594.52001953125 594.47998046875 594.52001953125 592.55999755859375 590.52001953125 588.55999755859375 585.55999755859375 583.03997802734375
1075.5999755859375 1071.0799560546875 1067.56005859375 1064.0799560546875 1061.0400390625 1059.52001953125 1057.0799560546875 1054.0400390625 1052.52001953125 1050.56005859375 1048.0400390625 1046.52001953125 1045.52001953125 1043.56005859375 1040.56005859375 1037.0799560546875 1033.0799560546875 1028.5999755859375 1023.1199951171875 1015.2000122070312 1007.5999755859375 1003.5599975585937 1001.0399780273437 998.08001708984375 994.08001708984375 990.55999755859375 987.55999755859375 983.5999755859375 979.55999755859375 976.08001708984375 971.5999755859375 967.08001708984375 962.5999755859375 958.55999755859375 954.5999755859375 950.08001708984375 946.55999755859375 943.08001708984375 939.55999755859375 935.1199951171875 930.08001708984375 926.55999755859375 923.55999755859375 920.08001708984375 916.08001708984375 912.55999755859375 908.5999755859375 904.08001708984375 900.08001708984375 897.03997802734375 895.03997802734375 892.55999755859375 889.55999755859375 886.08001708984375 882.55999755859375 879.55999755859375 876.55999755859375 873.55999755859375 871.03997802734375 868.08001708984375 863.5999755859375 860.52001953125 860.47998046875 860.52001953125 859.03997802734375 856.55999755859375 854.03997802734375 850.5999755859375 846.08001708984375 841.1199951171875 836.08001708984375 832.08001708984375 827.5999755859375 825.96002197265625 827.47998046875 827.52001953125 826.52001953125 825.03997802734375 823.52001953125 822.03997802734375 819.08001708984375 815.08001708984375 811.55999755859375 808.08001708984375 805.03997802734375 803.03997802734375 800.08001708984375 796.55999755859375 794.52001953125 792.08001708984375 789.03997802734375 785.5999755859375 781.08001708984375 778.52001953125 777.52001953125 776.03997802734375 774.03997802734375 772.03997802734375 770.03997802734375 767.55999755859375 764.55999755859375 761.55999755859375 759.03997802734375 756.55999755859375 753.08001708984375 750.03997802734375 748.03997802734375 746.03997802734375 744.52001953125 742.55999755859375 739.55999755859375 736.55999755859375 733.55999755859375 730.08001708984375 726.55999755859375 723.55999755859375 721.03997802734375 719.03997802734375 717.03997802734375 715.03997802734375 713.52001953125 712.03997802734375 709.55999755859375 706.08001708984375 703.03997802734375 700.55999755859375 697.55999755859375 693.1199951171875 688.55999755859375 685.55999755859375 683.03997802734375 680.55999755859375 678.03997802734375 677 675.55999755859375 672.08001708984375 669.03997802734375 666.55999755859375 663.55999755859375 660.55999755859375 657.08001708984375 653.08001708984375 649.55999755859375 646.55999755859375 643.55999755859375 640.55999755859375 637.55999755859375 634.08001708984375 631.03997802734375 629.03997802734375 627.03997802734375 625.52001953125 625 625 625 625 625 624.52001953125 623.52001953125 622.52001953125 621.52001953125 621.47998046875 622.47998046875 622.52001953125 621.03997802734375 620 619.52001953125 619 618.03997802734375 616.03997802734375 614.52001953125 613.03997802734375 611.03997802734375 609.03997802734375 607.03997802734375 604.55999755859375 602.03997802734375 600.03997802734375 597.08001708984375 595 595 595 595 593.08001708984375 589.55999755859375 586.08001708984375 583.03997802734375 580.55999755859375
1075.5999755859375 1070.5999755859375 1065.5999755859375 1061.0799560546875 1058.0400390625 1056.52001953125 1054.0799560546875 1051.52001953125 1050.52001953125 1048.56005859375 1045.56005859375 1043.0400390625 1040.56005859375 1037.0799560546875 1033.56005859375 1030.56005859375 1026.1199951171875 1021.5599975585937 1018.0800170898437 1013.5999755859375 1007.6400146484375 1001.5999755859375 997.55999755859375 994.55999755859375 991.08001708984375 988.03997802734375 985.08001708984375 981.08001708984375 977.55999755859375 974.55999755859375 970.5999755859375 966.55999755859375 962.5999755859375 957.5999755859375 952.5999755859375 948.55999755859375 944.5999755859375 940.55999755859375 936.5999755859375 932.08001708984375 927.1199951171875 922.55999755859375 919.08001708984375 915.08001708984375 911.55999755859375 908.08001708984375 904.55999755859375 902.03997802734375 898.1199951171875 892.5999755859375 889.52001953125 887.55999755859375 884.55999755859375 881.08001708984375 878.03997802734375 875.55999755859375 872.55999755859375 869.55999755859375 866.55999755859375 863.08001708984375 859.08001708984375 855.55999755859375 854.96002197265625 855.52001953125 853.55999755859375 851.52001953125 851 848.5999755859375 844.08001708984375 839.5999755859375 835.55999755859375 831.5999755859375 823.239990234375 818.44000244140625 820.96002197265625 822 821.52001953125 820.52001953125 819.03997802734375 816.55999755859375 813.08001708984375 809.55999755859375 807.03997802734375 804.55999755859375 802.03997802734375 800.03997802734375 796.5999755859375 792.08001708984375 790 789.03997802734375 786.08001708984375 782.55999755859375 779.55999755859375 777.03997802734375 775.52001953125 773.55999755859375 771.03997802734375 769.03997802734375 767.03997802734375 764.55999755859375 762.03997802734375 759.55999755859375 757.03997802734375 754.55999755859375 751.55999755859375 749.03997802734375 747.03997802734375 745.52001953125 744.52001953125 743.03997802734375 740.08001708984375 736.55999755859375 732.5999755859375 728.55999755859375 725.08001708984375 721.55999755859375 719.03997802734375 717.03997802734375 715.03997802734375 713.52001953125 712.03997802734375 710.03997802734375 707.55999755859375 704.08001708984375 700.55999755859375 697.55999755859375 694.08001708984375 690.08001708984375 687.03997802734375 685.03997802734375 683.03997802734375 680.55999755859375 677.55999755859375 675.52001953125 673.55999755859375 670.08001708984375 667.03997802734375 664.55999755859375 662.03997802734375 659.08001708984375 655.08001708984375 651.55999755859375 648.55999755859375 645.08001708984375 642.03997802734375 639.55999755859375 636.08001708984375 632.55999755859375 630.03997802734375 628.03997802734375 626.52001953125 625.52001953125 625 624.52001953125 623.52001953125 623.96002197265625 624.52001953125 623.52001953125 622.03997802734375 620.52001953125 620.47998046875 621 621.47998046875 621.52001953125 620.52001953125 619.52001953125 619 619 618.52001953125 616.55999755859375 614.52001953125 613.03997802734375 611.03997802734375 608.55999755859375 605.55999755859375 603.03997802734375 601.03997802734375 598.55999755859375 596.03997802734375 595 595 595 594.03997802734375 591.08001708984375 587.55999755859375 584.55999755859375 581.55999755859375 578.55999755859375
1077.1199951171875 1071.5999755859375 1065.6400146484375 1060.0799560546875 1056.56005859375 1053.56005859375 1050.56005859375 1048.52001953125 1047.0400390625 1044.56005859375 1042.0400390625 1039.0799560546875 1035.0799560546875 1031.56005859375 1028.0799560546875 1023.5999755859375 1019.0800170898437 1016.0399780273437 1013.5599975585937 1009.5999755859375 1004.1199951171875 999.08001708984375 996.03997802734375 993.55999755859375 990.55999755859375 987.55999755859375 984.55999755859375 980.5999755859375 976.55999755859375 973.08001708984375 969.08001708984375 965.08001708984375 960.5999755859375 956.08001708984375 951.5999755859375 947.08001708984375 942.5999755859375 938.08001708984375 933.1199951171875 928.55999755859375 924.1199951171875 919.08001708984375 913.6400146484375 909.03997802734375 907.52001953125 904.1199951171875 900.52001953125 898.08001708984375 894.08001708984375 889.5999755859375 885.08001708984375 882.03997802734375 879.55999755859375 876.55999755859375 873.55999755859375 871.03997802734375 868.08001708984375 865.03997802734375 862.08001708984375 857.5999755859375 853.08001708984375 850.03997802734375 849.47998046875 849.52001953125 848.52001953125 847.52001953125 846.52001953125 843.5999755859375 839.08001708984375 834.5999755859375 829.1199951171875 823.5999755859375 815.719970703125 809.52001953125 810.44000244140625 812.47998046875 812.52001953125 812 811.52001953125 810.03997802734375 807.55999755859375 804.55999755859375 802.03997802734375 800.03997802734375 797.55999755859375 795.03997802734375 792.08001708984375 788.55999755859375 786.03997802734375 784.03997802734375 781.55999755859375 779.03997802734375 777.03997802734375 775.52001953125 774.03997802734375 771.08001708984375 768.03997802734375 766.52001953125 765.03997802734375 763.03997802734375 760.55999755859375 758.03997802734375 756.03997802734375 753.55999755859375 750.55999755859375 748.03997802734375 746.52001953125 745.03997802734375 743.52001953125 742.03997802734375 739.08001708984375 735.08001708984375 731.08001708984375 727.08001708984375 723.08001708984375 719.55999755859375 717.52001953125 716.03997802734375 714.03997802734375 712.03997802734375 710.03997802734375 707.55999755859375 704.55999755859375 701.55999755859375 698.55999755859375 696.03997802734375 693.08001708984375 689.55999755859375 687.03997802734375 685.03997802734375 683.52001953125 681.55999755859375 678.08001708984375 675.03997802734375 672.08001708984375 668.08001708984375 665.03997802734375 662.55999755859375 659.55999755859375 656.08001708984375 652.55999755859375 649.55999755859375 646.55999755859375 643.08001708984375 640.03997802734375 637.55999755859375 634.55999755859375 631.55999755859375 629.03997802734375 627.52001953125 626.52001953125 625.52001953125 625 624.52001953125 623.52001953125 623 622.52001953125 621.52001953125 620.52001953125 620 620 620 620.96002197265625 621.52001953125 620.52001953125 619.52001953125 619.47998046875 619.52001953125 619 617.55999755859375 615.03997802734375 612.55999755859375 610.03997802734375 607.08001708984375 603.55999755859375 601.52001953125 600.03997802734375 598.52001953125 597.03997802734375 596 595.52001953125 594.52001953125 592.55999755859375 590.03997802734375 587.08001708984375 583.08001708984375 579.55999755859375 576.55999755859375
1080.0400390625 1075.6400146484375 1069.1199951171875 1062.6400146484375 1057.0799560546875 1052.5999755859375 1048.56005859375 1046.52001953125 1044.56005859375 1041.56005859375 1039.0400390625 1035.1199951171875 1030.56005859375 1027.56005859375 1024.56005859375 1021.0800170898438 1017.0800170898437 1013.0800170898437 1008.5999755859375 1004.0800170898437 1000.0800170898437 997.03997802734375 994.55999755859375 991.55999755859375 988.55999755859375 986.03997802734375 983.55999755859375 980.08001708984375 976.55999755859375 973.08001708984375 969.08001708984375 965.08001708984375 960.1199951171875 955.08001708984375 950.5999755859375 946.08001708984375 942.08001708984375 938.08001708984375 933.1199951171875 928.08001708984375 923.1199951171875 918.08001708984375 913.1199951171875 909.03997802734375 906.08001708984375 901.1199951171875 895.5999755859375 891.08001708984375 888.03997802734375 884.1199951171875 879.55999755859375 876.08001708984375 873.03997802734375 871.03997802734375 868.08001708984375 865.03997802734375 863.03997802734375 861.03997802734375 857.1199951171875 851.5999755859375 847.55999755859375 844.08001708984375 841.52001953125 841.96002197265625 843 842.52001953125 841.03997802734375 837.1199951171875 831.1199951171875 824.15997314453125 816.6400146484375 810.1199951171875 805.08001708984375 801.08001708984375 799.96002197265625 801.47998046875 802.47998046875 803 803 802.03997802734375 800.52001953125 799.03997802734375 797.03997802734375 795.03997802734375 793.03997802734375 790.55999755859375 787.08001708984375 783.55999755859375 781.03997802734375 779.03997802734375 777.52001953125 776.03997802734375 774.52001953125 773.52001953125 772.52001953125 770.08001708984375 767.52001953125 766.03997802734375 764.03997802734375 761.55999755859375 759.03997802734375 757.03997802734375 755.03997802734375 752.55999755859375 749.55999755859375 747.52001953125 746.03997802734375 744.03997802734375 742.52001953125 741.03997802734375 738.08001708984375 734.08001708984375 729.5999755859375 725.55999755859375 722.08001708984375 718.55999755859375 716.52001953125 714.55999755859375 712.03997802734375 710.03997802734375 707.55999755859375 705.03997802734375 702.08001708984375 699.03997802734375 697.03997802734375 695.03997802734375 693.03997802734375 690.55999755859375 688.03997802734375 686.52001953125 685.52001953125 683.08001708984375 679.55999755859375 675.5999755859375 670.5999755859375 666.55999755859375 664.03997802734375 661.55999755859375 658.55999755859375 655.08001708984375 651.55999755859375 648.55999755859375 645.55999755859375 642.08001708984375 639.03997802734375 636.55999755859375 633.55999755859375 631.03997802734375 629.03997802734375 627.52001953125 626.52001953125 626 625.52001953125 625 624.03997802734375 622.52001953125 621.52001953125 620.52001953125 620 620 620 620 620.96002197265625 621.03997802734375 620 620 620 620 620 618.55999755859375 615.55999755859375 612.55999755859375 609.55999755859375 606.08001708984375 602.55999755859375 600.03997802734375 598.52001953125 597.52001953125 596.52001953125 595.52001953125 594.52001953125 593.03997802734375 591.03997802734375 588.55999755859375 585.08001708984375 581.55999755859375 578.08001708984375 575.03997802734375
1078.56005859375 1075.0799560546875 1071.0799560546875 1065.1600341796875 1059.0799560546875 1054.5999755859375 1049.5999755859375 1045.0799560546875 1041.0799560546875 1038.0400390625 1036.0400390625 1032.5999755859375 1028.56005859375 1025.0799560546875 1021.5599975585937 1017.5999755859375 1013.0800170898437 1008.1199951171875 1003.0800170898437 999.55999755859375 997.03997802734375 995.03997802734375 993.03997802734375 990.55999755859375 987.55999755859375 985.03997802734375 982.55999755859375 979.08001708984375 975.55999755859375 972.55999755859375 968.5999755859375 964.08001708984375 959.1199951171875 954.08001708984375 950.55999755859375 946.5999755859375 942.55999755859375 939.55999755859375 935.1199951171875 930.55999755859375 926.1199951171875 921.55999755859375 917.1199951171875 912.55999755859375 909.08001708984375 903.6400146484375 898.08001708984375 893.1199951171875 888.08001708984375 883.5999755859375 877.6400146484375 871.5999755859375 868.03997802734375 864.1199951171875 859.08001708984375 857 856.52001953125 854.55999755859375 850.5999755859375 846.55999755859375 843.55999755859375 841.03997802734375 838.08001708984375 836.96002197265625 837.52001953125 836.03997802734375 832.1199951171875 826.1199951171875 819.6400146484375 812.15997314453125 806.55999755859375 803.08001708984375 798.5999755859375 792.6400146484375 789.96002197265625 791.96002197265625 793.96002197265625 795 794.52001953125 793.52001953125 792.52001953125 791.52001953125 790.52001953125 789.03997802734375 787.03997802734375 784.55999755859375 781.55999755859375 779.03997802734375 777.03997802734375 775.52001953125 774.52001953125 773.52001953125 772.52001953125 771.52001953125 770.03997802734375 767.55999755859375 765.52001953125 764.52001953125 763.03997802734375 760.55999755859375 758.03997802734375 756.03997802734375 754.03997802734375 751.55999755859375 749.03997802734375 747.03997802734375 744.55999755859375 742.52001953125 741.52001953125 739.08001708984375 735.55999755859375 732.55999755859375 728.5999755859375 724.08001708984375 720.55999755859375 717.55999755859375 715.03997802734375 713.03997802734375 710.55999755859375 708.03997802734375 706.03997802734375 704.03997802734375 701.55999755859375 699.03997802734375 697.03997802734375 695.03997802734375 693.03997802734375 690.55999755859375 688.03997802734375 686.52001953125 685.52001953125 683.55999755859375 680.55999755859375 675.6400146484375 669.5999755859375 665.08001708984375 662.03997802734375 659.55999755859375 656.55999755859375 653.08001708984375 649.55999755859375 647.03997802734375 645.03997802734375 642.55999755859375 640.03997802734375 637.08001708984375 633.08001708984375 630.03997802734375 628.03997802734375 626.52001953125 626 626 625.52001953125 624.52001953125 623.03997802734375 621.52001953125 620.52001953125 620 620 620 620 620 621.44000244140625 621.55999755859375 620 620 620 620 620 618.08001708984375 614.08001708984375 610.55999755859375 607.55999755859375 604.08001708984375 601.03997802734375 599.52001953125 598.52001953125 597.52001953125 596.52001953125 595.52001953125 594.03997802734375 591.55999755859375 588.55999755859375 586.03997802734375 583.08001708984375 579.55999755859375 576.55999755859375 575
1075.0400390625 1073.0400390625 1071.0400390625 1066.6400146484375 1061.0799560546875 1056.1199951171875 1050.1199951171875 1044.5999755859375 1040.0799560546875 1037.0400390625 1034.56005859375 1031.56005859375 1027.5999755859375 1023.0800170898437 1019.0800170898437 1013.6400146484375 1006.6400146484375 1001.0800170898437 997.55999755859375 995.03997802734375 994 993.03997802734375 991.03997802734375 988.55999755859375 986.03997802734375 984.03997802734375 981.55999755859375 978.08001708984375 975.03997802734375 972.08001708984375 967.5999755859375 963.08001708984375 958.5999755859375 954.08001708984375 950.55999755859375 947.08001708984375 943.08001708984375 940.03997802734375 937.08001708984375 933.08001708984375 929.08001708984375 925.08001708984375 921.08001708984375 916.5999755859375 912.08001708984375 906.6400146484375 901.08001708984375 895.15997314453125 888.5999755859375 883.5999755859375 879.55999755859375 874.6400146484375 868.1199951171875 860.20001220703125 851.6400146484375 848.96002197265625 850.47998046875 849.08001708984375 844.5999755859375 840.08001708984375 836.55999755859375 833.55999755859375 830.55999755859375 829.96002197265625 829.55999755859375 824.6400146484375 818.5999755859375 813.5999755859375 808.1199951171875 803.08001708984375 799.08001708984375 795.55999755859375 792.08001708984375 788.08001708984375 785.52001953125 785 785.47998046875 786 786 785.52001953125 785 784.52001953125 783.52001953125 782.03997802734375 780.03997802734375 777.55999755859375 774.55999755859375 773.47998046875 773.03997802734375 771.03997802734375 769.52001953125 768.52001953125 767.03997802734375 765.03997802734375 763.03997802734375 762.47998046875 763 762.52001953125 761.52001953125 759.55999755859375 757.03997802734375 755.03997802734375 753.03997802734375 750.55999755859375 748.03997802734375 746.03997802734375 743.08001708984375 740.52001953125 739.03997802734375 735.5999755859375 732.03997802734375 729.55999755859375 725.5999755859375 721.55999755859375 719.03997802734375 717.03997802734375 715.03997802734375 713.03997802734375 710.55999755859375 708.03997802734375 706.03997802734375 703.55999755859375 701.03997802734375 698.55999755859375 696.03997802734375 694.03997802734375 692.03997802734375 689.55999755859375 687.03997802734375 685.52001953125 685 683.55999755859375 679.5999755859375 674.1199951171875 668.5999755859375 663.5999755859375 659.55999755859375 657.03997802734375 654.55999755859375 651.55999755859375 648.55999755859375 646.03997802734375 644.03997802734375 641.55999755859375 638.55999755859375 635.55999755859375 632.08001708984375 629.03997802734375 627.03997802734375 625.52001953125 625 625 624.52001953125 623.03997802734375 621.03997802734375 620 619.52001953125 619 619 619 619.47998046875 621.91998291015625 624.47998046875 623.08001708984375 620.03997802734375 619.47998046875 620 620 619.03997802734375 616.08001708984375 612.08001708984375 609.03997802734375 606.55999755859375 603.55999755859375 601.03997802734375 599.52001953125 598.52001953125 597.52001953125 596.52001953125 595.52001953125 593.08001708984375 589.55999755859375 586.55999755859375 584.52001953125 581.5999755859375 579 578.03997802734375 577.47998046875
1071 1071 1070.52001953125 1067.1199951171875 1062.0799560546875 1057.1199951171875 1050.6400146484375 1044.5999755859375 1039.5999755859375 1036.0400390625 1033.56005859375 1029.5999755859375 1024.1199951171875 1019.5599975585937 1015.1199951171875 1006.239990234375 999.03997802734375 997.52001953125 994.5999755859375 991.52001953125 990.52001953125 989.03997802734375 987.03997802734375 985.03997802734375 983.03997802734375 981.03997802734375 978.55999755859375 975.55999755859375 973.03997802734375 970.55999755859375 966.5999755859375 962.55999755859375 958.5999755859375 954.08001708984375 951.03997802734375 947.5999755859375 943.55999755859375 941.03997802734375 938.55999755859375 935.08001708984375 931.55999755859375 927.5999755859375 922.5999755859375 918.55999755859375 914.1199951171875 908.1199951171875 901.6400146484375 893.67999267578125 886.1199951171875 881.08001708984375 877.08001708984375 873.08001708984375 868.1199951171875 861.15997314453125 851.719970703125 843.1199951171875 840.47998046875 839.08001708984375 834.5999755859375 830.08001708984375 827.03997802734375 824.55999755859375 820.5999755859375 818.96002197265625 818.08001708984375 813.5999755859375 808.5999755859375 803.5999755859375 799.55999755859375 796.08001708984375 792.55999755859375 789.55999755859375 786.08001708984375 782.08001708984375 778.08001708984375 776 776 776.96002197265625 778.47998046875 778.52001953125 777.52001953125 776.52001953125 775.52001953125 774.03997802734375 772.03997802734375 770.03997802734375 768.03997802734375 767 766.03997802734375 764.52001953125 763.03997802734375 761.52001953125 760.52001953125 758.55999755859375 757.47998046875 758.47998046875 759.47998046875 760 759.03997802734375 757.03997802734375 755.52001953125 754.52001953125 752.55999755859375 749.55999755859375 746.55999755859375 744.03997802734375 741.08001708984375 738.03997802734375 735.08001708984375 731.55999755859375 728.55999755859375 725.55999755859375 722.55999755859375 720.03997802734375 717.55999755859375 715.52001953125 714.03997802734375 711.55999755859375 709.03997802734375 707.03997802734375 705.03997802734375 702.55999755859375 700.03997802734375 697.55999755859375 695.03997802734375 693.03997802734375 691.03997802734375 688.55999755859375 685.55999755859375 683.52001953125 683 682.03997802734375 677.6400146484375 670.6400146484375 665.08001708984375 661.08001708984375 658.03997802734375 656.03997802734375 653.55999755859375 650.55999755859375 648.03997802734375 645.55999755859375 643.03997802734375 640.55999755859375 637.55999755859375 634.55999755859375 631.55999755859375 628.55999755859375 626.03997802734375 624.03997802734375 622.52001953125 621.52001953125 621.47998046875 621.52001953125 620.52001953125 620 620 620 620 620 620 620 620.96002197265625 621.03997802734375 619.52001953125 618.52001953125 618.96002197265625 619.52001953125 617.08001708984375 613.08001708984375 610.03997802734375 607.55999755859375 605.03997802734375 602.55999755859375 600.03997802734375 598.52001953125 598 597.52001953125 596.52001953125 594.55999755859375 591.55999755859375 588.55999755859375 586.03997802734375 583.55999755859375 580.55999755859375 579 579 579.47998046875
1067.47998046875 1068 1067.0400390625 1064.0799560546875 1061.0400390625 1056.6400146484375 1049.6400146484375 1043.5999755859375 1038.5999755859375 1035.0400390625 1032.56005859375 1029.0799560546875 1024.1199951171875 1020.0399780273437 1015.6400146484375 1009.1199951171875 1003.5999755859375 999.55999755859375 995.1199951171875 989.5999755859375 983.6400146484375 980.47998046875 980.52001953125 979.52001953125 978.52001953125 977.03997802734375 975.03997802734375 973.03997802734375 971.52001953125 969.08001708984375 965.08001708984375 961.55999755859375 957.1199951171875 953.03997802734375 951.03997802734375 948.08001708984375 944.55999755859375 942.03997802734375 939.55999755859375 936.08001708984375 933.03997802734375 930.55999755859375 926.5999755859375 922.08001708984375 916.6400146484375 909.6400146484375 902.15997314453125 892.719970703125 884.1199951171875 878.5999755859375 874.08001708984375 869.5999755859375 865.08001708984375 859.15997314453125 850.67999267578125 841.20001220703125 833.1199951171875 828.08001708984375 825.03997802734375 822.55999755859375 818.5999755859375 813.5999755859375 809.08001708984375 807.96002197265625 807.55999755859375 804.08001708984375 800.55999755859375 797.08001708984375 793.08001708984375 789.08001708984375 786.03997802734375 783.55999755859375 779.5999755859375 773.6400146484375 768.55999755859375 766.52001953125 766.47998046875 767.47998046875 768.47998046875 769 769 768.52001953125 767.03997802734375 765.03997802734375 763.52001953125 762.03997802734375 760.52001953125 759.03997802734375 757.03997802734375 755.52001953125 755.47998046875 755.52001953125 754.03997802734375 751.55999755859375 750.47998046875 751.96002197265625 753.96002197265625 755 754.52001953125 753.52001953125 753 752.52001953125 751.03997802734375 749.03997802734375 747.03997802734375 744.55999755859375 741.08001708984375 737.08001708984375 733.08001708984375 729.08001708984375 725.55999755859375 722.55999755859375 719.55999755859375 717.52001953125 716.03997802734375 714.03997802734375 712.52001953125 710.55999755859375 708.03997802734375 705.55999755859375 703.03997802734375 701.03997802734375 698.55999755859375 695.55999755859375 693.03997802734375 691.03997802734375 689.03997802734375 687.03997802734375 683.5999755859375 681 681 680.52001953125 675.20001220703125 667.5999755859375 663.55999755859375 660.08001708984375 657.03997802734375 655.03997802734375 652.55999755859375 649.55999755859375 647.03997802734375 645.03997802734375 643.03997802734375 640.55999755859375 637.55999755859375 634.55999755859375 631.55999755859375 628.55999755859375 625.55999755859375 623.03997802734375 621.52001953125 620.52001953125 620.47998046875 620.52001953125 620 620 620 620 620 620 620 620 620.47998046875 620.52001953125 619.03997802734375 617.52001953125 617.47998046875 617.52001953125 615.08001708984375 611.08001708984375 608.03997802734375 606.03997802734375 603.55999755859375 601.03997802734375 599.52001953125 598.52001953125 597.52001953125 596.52001953125 595.52001953125 593.55999755859375 590.55999755859375 587.08001708984375 584.52001953125 582.55999755859375 580.52001953125 580 580.47998046875 580.03997802734375
1060.52001953125 1060.47998046875 1061.47998046875 1061.0400390625 1058.56005859375 1054.1199951171875 1048.5999755859375 1043.5999755859375 1039.0799560546875 1035.56005859375 1032.0799560546875 1028.56005859375 1025.0799560546875 1022.0399780273437 1018.5999755859375 1012.6400146484375 1006.1199951171875 1001.5599975585937 997.1199951171875 992.08001708984375 985.67999267578125 979.08001708984375 975.08001708984375 972.52001953125 971.03997802734375 969.52001953125 968.03997802734375 966.03997802734375 964.03997802734375 961.08001708984375 956.5999755859375 951.5999755859375 948.03997802734375 946.52001953125 945.03997802734375 943.52001953125 942.52001953125 941.52001953125 940.52001953125 938.08001708984375 935.03997802734375 932.55999755859375 928.5999755859375 924.08001708984375 918.15997314453125 909.20001220703125 899.20001220703125 889.67999267578125 881.6400146484375 876.08001708984375 871.1199951171875 865.1199951171875 859.1199951171875 852.15997314453125 845.5999755859375 838.67999267578125 830.15997314453125 823.5999755859375 818.1199951171875 813.08001708984375 809.08001708984375 804.5999755859375 801.03997802734375 799.52001953125 798.52001953125 796.08001708984375 793.03997802734375 791.03997802734375 787.5999755859375 782.5999755859375 779.03997802734375 775.1199951171875 771.03997802734375 767.5999755859375 763.08001708984375 759.55999755859375 758 757.52001953125 757.96002197265625 759.96002197265625 761 760.03997802734375 758.03997802734375 756.03997802734375 753.55999755859375 751.03997802734375 749.52001953125 748.52001953125 747.52001953125 746.52001953125 746.96002197265625 747.52001953125 746.03997802734375 744.03997802734375 744.44000244140625 746.96002197265625 748.96002197265625 750.47998046875 751 750.52001953125 750 749.52001953125 748.52001953125 746.55999755859375 744.52001953125 743.03997802734375 740.08001708984375 735.5999755859375 730.5999755859375 726.55999755859375 723.08001708984375 719.55999755859375 717.52001953125 716.03997802734375 714.52001953125 713.03997802734375 711.03997802734375 709.03997802734375 707.03997802734375 705.03997802734375 702.55999755859375 700.03997802734375 697.55999755859375 694.08001708984375 691.03997802734375 689.03997802734375 686.55999755859375 683.55999755859375 680.55999755859375 678.52001953125 677.52001953125 676.03997802734375 672.1199951171875 667.55999755859375 664.08001708984375 660.08001708984375 657.03997802734375 655.03997802734375 652.55999755859375 649.55999755859375 647.03997802734375 645.03997802734375 642.55999755859375 640.03997802734375 637.55999755859375 635.03997802734375 632.55999755859375 629.55999755859375 626.55999755859375 623.55999755859375 621.03997802734375 619.52001953125 619.47998046875 619.52001953125 619 619.47998046875 620 620 620 620 620.47998046875 621 620.52001953125 619.03997802734375 616.55999755859375 615 615 615 613.08001708984375 609.55999755859375 607.03997802734375 604.55999755859375 602.03997802734375 600.03997802734375 598.03997802734375 596.52001953125 595.52001953125 594.03997802734375 592.52001953125 591.03997802734375 588.55999755859375 585.08001708984375 582.03997802734375 580.52001953125 580 580 580 577.5999755859375
1059.0400390625 1057.52001953125 1057 1057 1056.0400390625 1052.5999755859375 1048.0799560546875 1044.0799560546875 1039.5999755859375 1035.56005859375 1032.0799560546875 1028.0799560546875 1024.56005859375 1022.0399780273437 1018.5999755859375 1013.5999755859375 1008.1199951171875 1003.0800170898437 998.1199951171875 992.5999755859375 986.6400146484375 979.15997314453125 971.6400146484375 966.55999755859375 964.03997802734375 962.52001953125 960.55999755859375 957.55999755859375 954.08001708984375 949.1199951171875 943.1199951171875 939.03997802734375 937.03997802734375 936.47998046875 937.47998046875 938.96002197265625 940.47998046875 941 941 939.08001708984375 935.55999755859375 933.03997802734375 929.1199951171875 923.5999755859375 916.20001220703125 907.15997314453125 897.719970703125 887.67999267578125 879.6400146484375 873.1199951171875 865.67999267578125 856.67999267578125 849.1199951171875 843.5999755859375 838.1199951171875 832.1199951171875 825.6400146484375 819.5999755859375 813.6400146484375 809.52001953125 808.52001953125 804.6400146484375 799.55999755859375 794.6400146484375 790.52001953125 789.52001953125 788.52001953125 785.5999755859375 781.55999755859375 778.08001708984375 773.1199951171875 768.55999755859375 766.03997802734375 763.55999755859375 760.08001708984375 756.55999755859375 753.08001708984375 750.03997802734375 749.47998046875 750.47998046875 751 750.52001953125 749.52001953125 747.55999755859375 745.03997802734375 743.03997802734375 741.52001953125 740.03997802734375 738.52001953125 737.52001953125 737 736.52001953125 735.03997802734375 733.03997802734375 734.4000244140625 737.96002197265625 740.44000244140625 742.47998046875 743.47998046875 744 744.47998046875 745 744.52001953125 743.52001953125 742.52001953125 741.03997802734375 737.5999755859375 732.5999755859375 728.08001708984375 724.55999755859375 721.08001708984375 717.55999755859375 716 714.55999755859375 712.52001953125 711.52001953125 710.03997802734375 708.03997802734375 706.03997802734375 703.55999755859375 701.03997802734375 698.55999755859375 695.55999755859375 692.08001708984375 689.03997802734375 686.55999755859375 684.52001953125 682.55999755859375 679.55999755859375 677.03997802734375 675.52001953125 673.55999755859375 670.08001708984375 666.55999755859375 663.08001708984375 659.55999755859375 657.03997802734375 655.03997802734375 652.55999755859375 649.55999755859375 647.03997802734375 645.03997802734375 642.55999755859375 639.55999755859375 637.03997802734375 635.03997802734375 632.55999755859375 629.55999755859375 626.55999755859375 623.08001708984375 620.03997802734375 618.03997802734375 617.96002197265625 617.55999755859375 616.96002197265625 618.47998046875 619.47998046875 620 620 620 620.47998046875 620.52001953125 619.52001953125 617.55999755859375 615.03997802734375 613.52001953125 613 612.03997802734375 610.03997802734375 608.03997802734375 606.52001953125 604.55999755859375 602.03997802734375 600.03997802734375 598.03997802734375 596.52001953125 595.52001953125 594.03997802734375 592.03997802734375 589.08001708984375 585.08001708984375 581.55999755859375 579.03997802734375 578.47998046875 579.47998046875 580.47998046875 579.55999755859375 574.6400146484375
1058.0400390625 1055.0799560546875 1052.52001953125 1052.9599609375 1054 1052.56005859375 1048.5999755859375 1044.0799560546875 1039.1199951171875 1034.0799560546875 1030.0799560546875 1026.56005859375 1024.0400390625 1021.5599975585937 1017.5999755859375 1013.0800170898437 1008.1199951171875 1003.5599975585937 998.6400146484375 991.6400146484375 985.1199951171875 978.15997314453125 970.6400146484375 963.15997314453125 958.03997802734375 955.55999755859375 953.03997802734375 950.08001708984375 945.1199951171875 939.1199951171875 934.08001708984375 932 932 932.47998046875 933.47998046875 935.44000244140625 938.44000244140625 940.47998046875 940.03997802734375 936.1199951171875 931.55999755859375 928.08001708984375 923.5999755859375 918.5999755859375 912.6400146484375 906.1199951171875 897.719970703125 886.719970703125 877.15997314453125 868.67999267578125 858.719970703125 848.67999267578125 841.1199951171875 836.55999755859375 832.1199951171875 827.55999755859375 823.1199951171875 819.52001953125 819.96002197265625 821.47998046875 820.08001708984375 814.15997314453125 806.15997314453125 797.67999267578125 791.08001708984375 788.03997802734375 786.03997802734375 782.5999755859375 778.55999755859375 775.55999755859375 771.5999755859375 767.55999755859375 765.52001953125 763.08001708984375 760.03997802734375 758.52001953125 756.55999755859375 752.5999755859375 749.03997802734375 747.03997802734375 744.08001708984375 742 741.03997802734375 737.5999755859375 733.55999755859375 731.03997802734375 729.52001953125 728.52001953125 727.52001953125 727 727 726.52001953125 725.03997802734375 723.52001953125 724.91998291015625 727.47998046875 729.91998291015625 732.96002197265625 734.96002197265625 736.47998046875 737.47998046875 738 738.47998046875 739.47998046875 740 738.55999755859375 734.5999755859375 730.08001708984375 726.55999755859375 723.55999755859375 720.08001708984375 716.55999755859375 714.52001953125 712.55999755859375 710.52001953125 709.52001953125 708.03997802734375 706.03997802734375 704.03997802734375 701.55999755859375 699.03997802734375 696.55999755859375 693.55999755859375 690.55999755859375 687.55999755859375 685.03997802734375 683.03997802734375 681.03997802734375 678.55999755859375 675.55999755859375 673.52001953125 672.03997802734375 669.08001708984375 665.55999755859375 662.55999755859375 659.08001708984375 656.03997802734375 654.03997802734375 652.03997802734375 649.55999755859375 647.03997802734375 644.55999755859375 642.03997802734375 639.55999755859375 637.03997802734375 635.03997802734375 632.55999755859375 629.55999755859375 626.08001708984375 622.08001708984375 619.03997802734375 616.55999755859375 615 614.52001953125 616.4000244140625 619.47998046875 620 620 620 620 620 619.52001953125 618.03997802734375 616.03997802734375 614.52001953125 613.03997802734375 611.03997802734375 609.52001953125 608.52001953125 607.03997802734375 605.52001953125 603.55999755859375 601.52001953125 600.03997802734375 598.03997802734375 596.52001953125 595.03997802734375 592.55999755859375 590.03997802734375 587.08001708984375 583.08001708984375 579.08001708984375 575.55999755859375 574.47998046875 577.4000244140625 580 577.1199951171875 571.1199951171875
1053.5999755859375 1050.0400390625 1048.52001953125 1048.47998046875 1049.9599609375 1050.0400390625 1046.5999755859375 1042.56005859375 1038.1199951171875 1032.5999755859375 1028.0799560546875 1024.0799560546875 1021.0399780273437 1018.5599975585937 1015.5599975585937 1013.0399780273437 1009.1199951171875 1004.5599975585937 998.67999267578125 988.719970703125 978.67999267578125 971.1199951171875 966.08001708984375 961.5999755859375 956.1199951171875 950.1199951171875 945.08001708984375 942.03997802734375 937.15997314453125 931.08001708984375 928.52001953125 927.03997802734375 925.03997802734375 924 924 924.96002197265625 927.91998291015625 931.44000244140625 932.03997802734375 929.08001708984375 924.1199951171875 919.08001708984375 915.08001708984375 911.08001708984375 907.08001708984375 903.55999755859375 897.20001220703125 885.280029296875 873.20001220703125 861.760009765625 851.15997314453125 843.6400146484375 839.03997802734375 837.03997802734375 833.5999755859375 830.03997802734375 828.03997802734375 826.52001953125 826.96002197265625 828.47998046875 829.47998046875 825.67999267578125 816.20001220703125 805.719970703125 797.1199951171875 792.55999755859375 789.55999755859375 784.6400146484375 780.03997802734375 778.03997802734375 774.1199951171875 770.52001953125 770 770.47998046875 771.47998046875 769.1199951171875 763.1199951171875 757.5999755859375 752.1199951171875 745.6400146484375 739.5999755859375 735.08001708984375 731.08001708984375 728.03997802734375 724.5999755859375 720.55999755859375 718.52001953125 718.47998046875 718.52001953125 717.52001953125 716.52001953125 716 715.52001953125 715 715.96002197265625 717.96002197265625 720.44000244140625 723.44000244140625 726.44000244140625 728.47998046875 729.47998046875 730.47998046875 731 730.52001953125 729.52001953125 729 728.52001953125 726.55999755859375 724.03997802734375 721.55999755859375 718.08001708984375 714.08001708984375 710.55999755859375 708.52001953125 707.52001953125 707 706.03997802734375 704.03997802734375 702.03997802734375 700.03997802734375 698.03997802734375 696.03997802734375 693.08001708984375 689.55999755859375 686.55999755859375 683.55999755859375 681.03997802734375 679.03997802734375 676.08001708984375 672.55999755859375 670.52001953125 669.03997802734375 666.08001708984375 663.03997802734375 661.03997802734375 658.55999755859375 656.03997802734375 654.03997802734375 651.55999755859375 649.03997802734375 646.55999755859375 644.03997802734375 642.03997802734375 639.55999755859375 637.03997802734375 635.03997802734375 633.03997802734375 630.08001708984375 625.5999755859375 620.5999755859375 616.08001708984375 612.55999755859375 610.03997802734375 609.47998046875 611.44000244140625 615.4000244140625 618.96002197265625 620 620.47998046875 621 620.52001953125 619.03997802734375 617.03997802734375 615.03997802734375 613.52001953125 611.55999755859375 609.52001953125 608.52001953125 607.52001953125 606.52001953125 605.03997802734375 603.03997802734375 601.03997802734375 599.03997802734375 597.52001953125 596.03997802734375 594.03997802734375 591.55999755859375 588.08001708984375 583.5999755859375 579.55999755859375 576.55999755859375 574.03997802734375 573.96002197265625 575.96002197265625 576.52001953125 573.1199951171875 567.5999755859375
1053.0799560546875 1049.56005859375 1047.0400390625 1045.0400390625 1044 1043.52001953125 1042.0400390625 1039.0799560546875 1033.6400146484375 1026.6400146484375 1021.0800170898438 1017.5599975585937 1015.0399780273437 1013.0399780273437 1011.52001953125 1011.47998046875 1009.1199951171875 1003.1199951171875 995.67999267578125 984.280029296875 972.20001220703125 965.08001708984375 961.55999755859375 956.6400146484375 950.5999755859375 945.1199951171875 939.5999755859375 934.1199951171875 929.55999755859375 927.03997802734375 925.03997802734375 922.55999755859375 920.03997802734375 918.52001953125 917.03997802734375 916 916.96002197265625 919.44000244140625 921.96002197265625 921.08001708984375 916.1199951171875 910.5999755859375 905.5999755859375 901.08001708984375 898.03997802734375 896.52001953125 893.5999755859375 882.84002685546875 867.760009765625 856.67999267578125 852.47998046875 852.52001953125 850.08001708984375 845.5999755859375 841.55999755859375 838.55999755859375 835.55999755859375 834 834.96002197265625 836.47998046875 837.47998046875 834.6400146484375 826.20001220703125 816.20001220703125 805.719970703125 797.5999755859375 793.55999755859375 790.55999755859375 788.03997802734375 786.03997802734375 783.55999755859375 782 781.52001953125 780.52001953125 778.55999755859375 774.5999755859375 769.1199951171875 763.1199951171875 756.6400146484375 750.1199951171875 743.6400146484375 737.5999755859375 733.55999755859375 730.55999755859375 727.55999755859375 722.6400146484375 717.55999755859375 714.55999755859375 711.08001708984375 709 709 708.52001953125 707.03997802734375 706.47998046875 706.52001953125 706.96002197265625 708.96002197265625 711.44000244140625 714.44000244140625 717.91998291015625 720.96002197265625 722.96002197265625 724 723.52001953125 723 723 722.03997802734375 720.03997802734375 718.03997802734375 715.55999755859375 712.55999755859375 708.5999755859375 704.08001708984375 702.96002197265625 704 704.47998046875 703.55999755859375 701.52001953125 700.03997802734375 698.52001953125 697.03997802734375 695.03997802734375 692.08001708984375 688.08001708984375 684.08001708984375 680.55999755859375 678.03997802734375 675.55999755859375 672.55999755859375 670.03997802734375 668.03997802734375 666.03997802734375 664.03997802734375 662.03997802734375 660.03997802734375 657.55999755859375 655.03997802734375 653.03997802734375 651.03997802734375 648.55999755859375 646.03997802734375 643.55999755859375 641.03997802734375 639.03997802734375 637.03997802734375 635.03997802734375 633.03997802734375 630.08001708984375 625.1199951171875 619.5999755859375 615.08001708984375 611.55999755859375 609.03997802734375 608.47998046875 610.91998291015625 616.3599853515625 620.47998046875 621 621 620.52001953125 619.52001953125 618.03997802734375 616.03997802734375 614.03997802734375 612.52001953125 610.55999755859375 609 608.03997802734375 606.52001953125 605.52001953125 604.03997802734375 602.03997802734375 600.03997802734375 598.03997802734375 596.52001953125 595.52001953125 593.55999755859375 590.08001708984375 585.5999755859375 581.08001708984375 577.08001708984375 573.55999755859375 571.03997802734375 570.96002197265625 573.44000244140625 573.55999755859375 569.1199951171875 563.5999755859375
1052.56005859375 1048.5999755859375 1044.56005859375 1041.0799560546875 1038.0400390625 1036.0400390625 1033.56005859375 1029.5999755859375 1022.6799926757812 1014.6400146484375 1009.0800170898437 1007 1006.0399780273437 1004.52001953125 1004 1004 1002.0800170898437 997.5999755859375 989.239990234375 975.79998779296875 965.1199951171875 959.1199951171875 953.5999755859375 949.08001708984375 943.6400146484375 938.55999755859375 934.5999755859375 930.08001708984375 927.52001953125 926.52001953125 925.52001953125 922.5999755859375 919.03997802734375 916.08001708984375 912.08001708984375 909.03997802734375 908.47998046875 909.47998046875 910.47998046875 911 907.6400146484375 901.5999755859375 896.1199951171875 891.55999755859375 887.1199951171875 882.55999755859375 880.03997802734375 874.20001220703125 863.239990234375 859.4000244140625 867.280029296875 871.08001708984375 863.719970703125 854.6400146484375 849.55999755859375 846.55999755859375 844.03997802734375 842.52001953125 842.96002197265625 844.96002197265625 845.52001953125 843.08001708984375 835.719970703125 825.67999267578125 816.20001220703125 806.67999267578125 799.5999755859375 796.03997802734375 794.03997802734375 793 792.03997802734375 790.52001953125 790 790.47998046875 789.08001708984375 783.6400146484375 775.67999267578125 767.15997314453125 759.15997314453125 752.5999755859375 747.5999755859375 743.55999755859375 740.55999755859375 736.5999755859375 732.55999755859375 727.6400146484375 721.1199951171875 716.08001708984375 711.5999755859375 708.52001953125 707.52001953125 704.1199951171875 700.52001953125 700 699.52001953125 699 699.47998046875 700.96002197265625 702.96002197265625 705.44000244140625 707.96002197265625 710.91998291015625 714.44000244140625 716 716 715.03997802734375 713.03997802734375 711.03997802734375 708.55999755859375 705.55999755859375 701.5999755859375 697.08001708984375 693.55999755859375 692.47998046875 693.47998046875 695.91998291015625 698 698 697.52001953125 696.03997802734375 694.52001953125 693.03997802734375 690.55999755859375 687.08001708984375 682.5999755859375 678.55999755859375 676.03997802734375 673.55999755859375 670.55999755859375 668.03997802734375 666.03997802734375 664.03997802734375 662.03997802734375 660.52001953125 658.55999755859375 656.03997802734375 654.52001953125 653.52001953125 651.55999755859375 648.55999755859375 645.55999755859375 643.03997802734375 640.55999755859375 638.03997802734375 636.03997802734375 634.03997802734375 631.55999755859375 627.5999755859375 622.5999755859375 618.08001708984375 614.08001708984375 610.55999755859375 608.03997802734375 607.47998046875 610.4000244140625 616.3599853515625 620.96002197265625 621.52001953125 621 620.52001953125 619.03997802734375 616.55999755859375 614.52001953125 613.52001953125 612.03997802734375 610.03997802734375 609 608.52001953125 607.03997802734375 605.03997802734375 603.03997802734375 601.03997802734375 599.03997802734375 597.03997802734375 595.52001953125 594.03997802734375 592.03997802734375 589.08001708984375 584.5999755859375 579.5999755859375 575.08001708984375 571.55999755859375 569.52001953125 569.47998046875 570.47998046875 569.08001708984375 564.5999755859375 559.5999755859375
1051.0799560546875 1046.5999755859375 1041.5999755859375 1036.5999755859375 1032.0799560546875 1028.0799560546875 1024.0799560546875 1018.6400146484375 1011.1599731445312 1005.0800170898437 1001.5599975585937 999.03997802734375 997.52001953125 996.03997802734375 994.52001953125 993.52001953125 992.52001953125 989.1199951171875 978.79998779296875 967.15997314453125 959.6400146484375 952.6400146484375 946.5999755859375 942.08001708984375 938.55999755859375 935.55999755859375 932.08001708984375 929.52001953125 929.47998046875 930 930 927.5999755859375 923.08001708984375 918.5999755859375 912.6400146484375 907.55999755859375 905.52001953125 905 904.52001953125 901.1199951171875 897.52001953125 893.6400146484375 888.55999755859375 886.52001953125 883.1199951171875 876.15997314453125 870.08001708984375 868 868.47998046875 872.3599853515625 878.8800048828125 880.55999755859375 874.67999267578125 865.67999267578125 858.1199951171875 853.08001708984375 850.03997802734375 848.52001953125 848.96002197265625 850.96002197265625 852 851.03997802734375 845.67999267578125 835.719970703125 825.67999267578125 817.6400146484375 812.08001708984375 807.1199951171875 802.08001708984375 799.52001953125 799 799.47998046875 800.96002197265625 803.44000244140625 801.15997314453125 791.719970703125 781.20001220703125 771.20001220703125 762.6400146484375 756.5999755859375 752.08001708984375 748.08001708984375 745.03997802734375 741.5999755859375 737.08001708984375 732.5999755859375 727.1199951171875 722.08001708984375 717.5999755859375 713.08001708984375 709.55999755859375 705.1199951171875 701.03997802734375 699.52001953125 698.03997802734375 696.52001953125 694.08001708984375 692 692.47998046875 694.44000244140625 696.96002197265625 698.96002197265625 702.4000244140625 706.44000244140625 707.52001953125 706.52001953125 705.52001953125 704.03997802734375 701.55999755859375 698.08001708984375 693.5999755859375 689.08001708984375 684.5999755859375 682 680.55999755859375 679.47998046875 684.32000732421875 690.91998291015625 693 693 692.52001953125 691.52001953125 689.55999755859375 686.08001708984375 682.08001708984375 678.55999755859375 675.55999755859375 672.55999755859375 669.55999755859375 667.03997802734375 664.55999755859375 662.52001953125 661.03997802734375 659.03997802734375 657.03997802734375 655.03997802734375 654 653.52001953125 652.03997802734375 650.03997802734375 647.08001708984375 643.55999755859375 640.55999755859375 637.55999755859375 634.55999755859375 632.03997802734375 629.55999755859375 625.5999755859375 621.08001708984375 617.08001708984375 613.08001708984375 610.03997802734375 607.08001708984375 605.96002197265625 608.91998291015625 615.79998779296875 621.96002197265625 622.52001953125 621.03997802734375 619.52001953125 617.55999755859375 615.03997802734375 614 613.52001953125 612.52001953125 610.55999755859375 609 608.52001953125 607.03997802734375 605.03997802734375 603.03997802734375 601.03997802734375 599.03997802734375 597.03997802734375 595.52001953125 594.03997802734375 591.08001708984375 587.08001708984375 582.5999755859375 577.5999755859375 573.08001708984375 569.55999755859375 567.03997802734375 566 565.52001953125 563.55999755859375 560.08001708984375 556.55999755859375
1046.5999755859375 1041.5999755859375 1034.6800537109375 1028.0799560546875 1023.5999755859375 1019.0800170898437 1015.5599975585937 1010.6400146484375 1003.6400146484375 997.5999755859375 993.55999755859375 990.55999755859375 988.03997802734375 986.52001953125 985.52001953125 984.52001953125 982.08001708984375 977.1199951171875 969.20001220703125 960.6400146484375 954.1199951171875 948.5999755859375 943.1199951171875 939.03997802734375 937.03997802734375 935.03997802734375 932.08001708984375 930.47998046875 932.44000244140625 935.44000244140625 937.96002197265625 936.1199951171875 930.1199951171875 924.5999755859375 919.5999755859375 913.15997314453125 907.55999755859375 905.52001953125 904.52001953125 902.08001708984375 900 900.96002197265625 903.44000244140625 905.47998046875 904.08001708984375 895.760009765625 885.15997314453125 882.91998291015625 887.4000244140625 890.47998046875 891.47998046875 890.08001708984375 882.719970703125 874.1199951171875 866.67999267578125 860.08001708984375 857.03997802734375 855.52001953125 855.47998046875 856 855.03997802734375 853.52001953125 851.08001708984375 845.15997314453125 835.719970703125 827.5999755859375 823.08001708984375 820.03997802734375 817.55999755859375 814.55999755859375 811.55999755859375 810 811.44000244140625 812.52001953125 809.1199951171875 798.79998779296875 785.719970703125 775.67999267578125 767.6400146484375 761.1199951171875 756.08001708984375 752.55999755859375 749.55999755859375 746.55999755859375 743.08001708984375 738.1199951171875 732.5999755859375 727.5999755859375 724.03997802734375 721.08001708984375 716.5999755859375 712.08001708984375 707.5999755859375 703.08001708984375 699.08001708984375 695.08001708984375 691.08001708984375 688.52001953125 687.52001953125 687.47998046875 688 688.96002197265625 690.96002197265625 693.91998291015625 697.44000244140625 699 698.03997802734375 696.03997802734375 693.55999755859375 690.08001708984375 685.5999755859375 681.08001708984375 676.5999755859375 672.08001708984375 669.03997802734375 668.96002197265625 671.44000244140625 675.4000244140625 680.8800048828125 685.44000244140625 687.47998046875 688 686.08001708984375 683.03997802734375 680.55999755859375 678.03997802734375 675.55999755859375 672.08001708984375 668.55999755859375 665.55999755859375 663.03997802734375 661.03997802734375 659.03997802734375 657.03997802734375 655.03997802734375 653.52001953125 653 653 652.03997802734375 649.55999755859375 646.08001708984375 642.55999755859375 639.55999755859375 636.55999755859375 633.55999755859375 630.55999755859375 627.55999755859375 623.5999755859375 619.55999755859375 616.08001708984375 612.55999755859375 609.55999755859375 606.08001708984375 604.96002197265625 608.4000244140625 615.79998779296875 621.96002197265625 622.03997802734375 620.52001953125 619.03997802734375 616.55999755859375 614.52001953125 613.52001953125 613 612.52001953125 611.03997802734375 610 609.52001953125 607.55999755859375 605.03997802734375 603.52001953125 601.55999755859375 599.03997802734375 597.03997802734375 595.03997802734375 592.55999755859375 589.08001708984375 585.08001708984375 580.1199951171875 574.5999755859375 570.55999755859375 567.55999755859375 565.03997802734375 563.52001953125 562.03997802734375 559.55999755859375 556.08001708984375 552.55999755859375
1039.6400146484375 1032.6400146484375 1026.1199951171875 1020.5999755859375 1016.0800170898437 1011.1199951171875 1004.6400146484375 998.5999755859375 993.5999755859375 989.08001708984375 985.08001708984375 982.03997802734375 980.03997802734375 978.03997802734375 975.55999755859375 973.03997802734375 970.55999755859375 965.6400146484375 960.08001708984375 955.1199951171875 950.08001708984375 947.52001953125 944.5999755859375 941.52001953125 940.52001953125 939.52001953125 938.03997802734375 938.44000244140625 941.44000244140625 944.91998291015625 948.44000244140625 948.08001708984375 941.20001220703125 932.6400146484375 926.5999755859375 922.55999755859375 918.5999755859375 914.08001708984375 911.03997802734375 909.52001953125 910.44000244140625 912.96002197265625 914 914 912.55999755859375 909.08001708984375 905.55999755859375 903.03997802734375 901.52001953125 900.03997802734375 898.03997802734375 894.5999755859375 888.6400146484375 881.6400146484375 874.6400146484375 868.5999755859375 864.55999755859375 862.52001953125 861.52001953125 861 859.55999755859375 857.03997802734375 854.08001708984375 849.5999755859375 844.1199951171875 838.5999755859375 834.08001708984375 830.55999755859375 828.03997802734375 825.55999755859375 823.52001953125 822.52001953125 820.55999755859375 817.08001708984375 812.1199951171875 804.20001220703125 793.719970703125 784.15997314453125 776.15997314453125 768.15997314453125 761.5999755859375 757.55999755859375 754.55999755859375 751.55999755859375 748.08001708984375 744.08001708984375 740.08001708984375 736.08001708984375 731.5999755859375 727.08001708984375 723.55999755859375 720.08001708984375 715.5999755859375 710.5999755859375 705.1199951171875 699.1199951171875 693.1199951171875 688.55999755859375 686.03997802734375 684.52001953125 683.52001953125 681.55999755859375 680 680.96002197265625 683.44000244140625 685.96002197265625 686.52001953125 684.55999755859375 681.55999755859375 678.55999755859375 674.5999755859375 671.03997802734375 668.08001708984375 663.5999755859375 660.03997802734375 659 659.47998046875 660 661.91998291015625 670.239990234375 679.8800048828125 683.47998046875 683.03997802734375 681.52001953125 679.55999755859375 677.03997802734375 674.08001708984375 670.55999755859375 667.55999755859375 664.08001708984375 661.03997802734375 659.03997802734375 657.52001953125 656.03997802734375 654.03997802734375 652.52001953125 652 652 651.03997802734375 648.08001708984375 644.55999755859375 641.08001708984375 638.03997802734375 635.08001708984375 631.55999755859375 628.55999755859375 625.55999755859375 622.08001708984375 618.55999755859375 615.55999755859375 612.08001708984375 607.1199951171875 602.08001708984375 601.44000244140625 606.84002685546875 614.84002685546875 619.96002197265625 620.52001953125 619.52001953125 618.03997802734375 616.03997802734375 614.52001953125 614 614 614 612.55999755859375 611 610.52001953125 609.52001953125 607.55999755859375 605.03997802734375 602.55999755859375 599.55999755859375 596.55999755859375 594.03997802734375 591.55999755859375 587.5999755859375 583.08001708984375 578.5999755859375 573.5999755859375 569.08001708984375 565.55999755859375 563.03997802734375 560.55999755859375 558.03997802734375 555.55999755859375 552.55999755859375 550.03997802734375
1031.1600341796875 1024.1199951171875 1018.5999755859375 1014.0800170898437 1009.5999755859375 1004.5999755859375 998.15997314453125 991.5999755859375 985.6400146484375 980.55999755859375 978.03997802734375 976.52001953125 975.03997802734375 972.08001708984375 969.03997802734375 967.52001953125 966.03997802734375 962.1199951171875 957.55999755859375 953.5999755859375 950.52001953125 950 950 949.52001953125 948.52001953125 947.03997802734375 946 946.96002197265625 948.96002197265625 951.44000244140625 955.8800048828125 957.55999755859375 951.20001220703125 941.67999267578125 933.6400146484375 928.55999755859375 926.52001953125 925.52001953125 925 924.52001953125 923.52001953125 922.52001953125 921.03997802734375 919.52001953125 917.08001708984375 915 913.55999755859375 910.55999755859375 908.03997802734375 905.55999755859375 903.03997802734375 900.55999755859375 896.1199951171875 890.1199951171875 883.15997314453125 876.1199951171875 871.55999755859375 868.55999755859375 867 866.52001953125 864.08001708984375 860.55999755859375 857.55999755859375 853.5999755859375 848.5999755859375 844.08001708984375 840.08001708984375 837.03997802734375 835.03997802734375 833.52001953125 831.08001708984375 827.08001708984375 823.08001708984375 819.08001708984375 814.5999755859375 808.15997314453125 799.67999267578125 791.15997314453125 782.67999267578125 775.1199951171875 769.1199951171875 763.5999755859375 759.08001708984375 756.03997802734375 753.08001708984375 750.03997802734375 748.03997802734375 745.55999755859375 742.08001708984375 737.1199951171875 731.1199951171875 726.08001708984375 721.5999755859375 716.5999755859375 711.5999755859375 705.6400146484375 698.6400146484375 692.1199951171875 687.55999755859375 685.03997802734375 682.08001708984375 678.55999755859375 676.52001953125 676.47998046875 677 676.52001953125 674.08001708984375 671.52001953125 670.03997802734375 668.03997802734375 666.52001953125 664.55999755859375 661.55999755859375 659.03997802734375 657.52001953125 656.52001953125 656.47998046875 657.47998046875 657.03997802734375 657.44000244140625 664.760009765625 674.84002685546875 679.47998046875 679.52001953125 678.03997802734375 675.55999755859375 672.55999755859375 669.08001708984375 665.55999755859375 662.55999755859375 659.55999755859375 657.03997802734375 655.03997802734375 653.03997802734375 651.03997802734375 650 650 649.52001953125 648.03997802734375 645.08001708984375 642.03997802734375 639.55999755859375 637.03997802734375 634.08001708984375 630.08001708984375 626.55999755859375 623.55999755859375 620.08001708984375 617.03997802734375 614.08001708984375 610.08001708984375 604.6400146484375 600.03997802734375 600.91998291015625 607.32000732421875 614.4000244140625 618.91998291015625 620.52001953125 619.52001953125 618.03997802734375 616.03997802734375 615 614.52001953125 614 614 613.52001953125 612.03997802734375 611 610.03997802734375 607.55999755859375 605.03997802734375 602.55999755859375 599.55999755859375 596.08001708984375 592.55999755859375 589.08001708984375 585.08001708984375 581.08001708984375 576.1199951171875 570.5999755859375 566.55999755859375 563.55999755859375 560.55999755859375 557.55999755859375 555.03997802734375 552.55999755859375 549.55999755859375 547.52001953125
1024.1600341796875 1016.6400146484375 1011.0800170898437 1006.5999755859375 1002.5599975585937 997.6400146484375 991.1199951171875 987.52001953125 984.5999755859375 981.52001953125 980.03997802734375 978.03997802734375 976.03997802734375 973.55999755859375 971.03997802734375 970 970.47998046875 968.5999755859375 963.1199951171875 959.52001953125 958.03997802734375 957 956.52001953125 955.52001953125 955 955 954.52001953125 954.96002197265625 956.96002197265625 958.96002197265625 961.91998291015625 963.52001953125 961.08001708984375 952.760009765625 943.1199951171875 938.08001708984375 934.08001708984375 931.03997802734375 930 929.52001953125 928.03997802734375 926.52001953125 925.52001953125 924.03997802734375 921.08001708984375 918.52001953125 917.03997802734375 914.55999755859375 912.03997802734375 909.55999755859375 906.55999755859375 904.03997802734375 901.55999755859375 896.6400146484375 890.1199951171875 884.1199951171875 880.03997802734375 877.55999755859375 875.03997802734375 873.03997802734375 871.03997802734375 866.6400146484375 861.08001708984375 856.5999755859375 851.5999755859375 847.55999755859375 844.55999755859375 841.55999755859375 839.03997802734375 838 835.1199951171875 829.5999755859375 825.08001708984375 820.5999755859375 816.08001708984375 810.6400146484375 803.6400146484375 796.6400146484375 790.1199951171875 783.15997314453125 776.1199951171875 771.08001708984375 766.1199951171875 761.55999755859375 759.03997802734375 757.03997802734375 755.03997802734375 753.03997802734375 751.03997802734375 747.5999755859375 742.1199951171875 735.15997314453125 728.1199951171875 722.5999755859375 717.5999755859375 713.08001708984375 707.6400146484375 700.6400146484375 694.1199951171875 689.08001708984375 683.15997314453125 677.55999755859375 675.52001953125 675 674.52001953125 673.03997802734375 670.55999755859375 668.03997802734375 667 666.52001953125 666 664.55999755859375 662.03997802734375 660.52001953125 659.52001953125 658.52001953125 658 657.52001953125 655.08001708984375 652.52001953125 654.8800048828125 663.760009765625 672.4000244140625 675 674.03997802734375 672.52001953125 671.03997802734375 668.55999755859375 665.08001708984375 661.55999755859375 658.55999755859375 656.03997802734375 654.03997802734375 651.55999755859375 649.52001953125 648.52001953125 648 647.03997802734375 645.03997802734375 642.55999755859375 640.03997802734375 638.03997802734375 635.55999755859375 632.08001708984375 628.55999755859375 625.55999755859375 622.55999755859375 619.55999755859375 616.55999755859375 613.08001708984375 609.08001708984375 603.6400146484375 599.03997802734375 599.44000244140625 605.32000732421875 610.96002197265625 615.3599853515625 618.03997802734375 617 617 616.03997802734375 615 615 615 615 615 613.55999755859375 611.03997802734375 609.03997802734375 606.55999755859375 604.03997802734375 601.55999755859375 598.08001708984375 594.55999755859375 591.55999755859375 587.1199951171875 582.08001708984375 577.5999755859375 572.5999755859375 568.55999755859375 565.08001708984375 562.03997802734375 559.08001708984375 555.55999755859375 553.03997802734375 550.55999755859375 548.03997802734375 546.03997802734375
1018.6799926757812 1010.6400146484375 1004.1199951171875 999.55999755859375 997.52001953125 995.08001708984375 992.03997802734375 991 990.52001953125 988.55999755859375 985.55999755859375 982.08001708984375 979.03997802734375 978 978 977.52001953125 976.52001953125 975.03997802734375 973.52001953125 971.55999755859375 969.52001953125 968.03997802734375 966.03997802734375 964.03997802734375 963 963 963 963.47998046875 964.96002197265625 967.44000244140625 969.47998046875 969.03997802734375 966.55999755859375 960.20001220703125 950.67999267578125 945.03997802734375 942.55999755859375 939.08001708984375 936.52001953125 936 935.52001953125 934.03997802734375 932.52001953125 931.03997802734375 928.55999755859375 925.55999755859375 922.55999755859375 919.08001708984375 916.03997802734375 913.55999755859375 910.08001708984375 907.03997802734375 905.03997802734375 902.08001708984375 896.6400146484375 891.08001708984375 887.08001708984375 883.55999755859375 881.03997802734375 878.08001708984375 873.5999755859375 868.1199951171875 863.55999755859375 859.5999755859375 855.08001708984375 851.08001708984375 848.03997802734375 845.55999755859375 843.52001953125 842.03997802734375 838.1199951171875 831.6400146484375 826.55999755859375 822.5999755859375 818.08001708984375 813.1199951171875 806.15997314453125 799.5999755859375 795.08001708984375 790.1199951171875 783.6400146484375 777.5999755859375 772.5999755859375 768.08001708984375 765.03997802734375 763.03997802734375 761.52001953125 759.55999755859375 757.03997802734375 755.03997802734375 752.55999755859375 747.6400146484375 740.6400146484375 733.15997314453125 725.6400146484375 719.5999755859375 714.5999755859375 709.1199951171875 702.6400146484375 696.5999755859375 692.55999755859375 686.67999267578125 680.08001708984375 678 677.52001953125 677 675.55999755859375 672.55999755859375 671 671.47998046875 672 672.96002197265625 674 673.52001953125 672.03997802734375 670.03997802734375 665.6400146484375 659.1199951171875 653.1199951171875 649.03997802734375 648.47998046875 651.8800048828125 661.719970703125 670.91998291015625 672.52001953125 671.52001953125 670.03997802734375 667.55999755859375 664.08001708984375 660.08001708984375 657.03997802734375 654.55999755859375 652.03997802734375 650.03997802734375 648.03997802734375 647 646.52001953125 644.55999755859375 642.03997802734375 640.03997802734375 638.03997802734375 636.03997802734375 634.03997802734375 631.55999755859375 628.08001708984375 624.55999755859375 621.55999755859375 618.55999755859375 616.03997802734375 612.5999755859375 607.5999755859375 602.1199951171875 598.03997802734375 597 598.91998291015625 604.3599853515625 610.8800048828125 614.47998046875 615 615 615 615 615 615 615 615 613.55999755859375 610.55999755859375 607.55999755859375 605.03997802734375 602.55999755859375 599.55999755859375 596.08001708984375 592.08001708984375 588.08001708984375 583.1199951171875 578.08001708984375 573.5999755859375 569.55999755859375 566.55999755859375 563.55999755859375 560.55999755859375 557.08001708984375 553.55999755859375 550.55999755859375 548.03997802734375 546.52001953125 545.03997802734375
1012.6400146484375 1007.5599975585937 1003.5999755859375 1000.52001953125 999.52001953125 998.52001953125 998 998 997.52001953125 995.55999755859375 993.03997802734375 990.55999755859375 987.08001708984375 985 985 985 984.52001953125 983.52001953125 982.03997802734375 980.03997802734375 978.52001953125 977.03997802734375 976 975.03997802734375 972.55999755859375 971 971.96002197265625 973 973.96002197265625 975.47998046875 974.55999755859375 972.03997802734375 969.08001708984375 964.1199951171875 957.6400146484375 952.55999755859375 950.03997802734375 947.08001708984375 944.52001953125 944.47998046875 944.52001953125 943.52001953125 942.03997802734375 940.03997802734375 937.55999755859375 934.55999755859375 930.5999755859375 925.5999755859375 921.08001708984375 918.03997802734375 915.08001708984375 911.55999755859375 908.55999755859375 905.08001708984375 900.1199951171875 895.08001708984375 890.5999755859375 887.03997802734375 885.03997802734375 882.08001708984375 876.6400146484375 870.1199951171875 865.55999755859375 862.08001708984375 858.55999755859375 855.08001708984375 851.55999755859375 848.55999755859375 846.03997802734375 843.55999755859375 840.08001708984375 834.15997314453125 828.08001708984375 824.08001708984375 820.08001708984375 815.1199951171875 809.1199951171875 803.1199951171875 798.55999755859375 794.5999755859375 790.55999755859375 786.1199951171875 780.5999755859375 776.08001708984375 772.08001708984375 768.55999755859375 766.52001953125 765.03997802734375 763.03997802734375 761.03997802734375 758.55999755859375 755.08001708984375 749.6400146484375 743.1199951171875 736.15997314453125 728.6400146484375 722.5999755859375 717.5999755859375 713.08001708984375 707.6400146484375 701.1199951171875 696.55999755859375 692.5999755859375 688.08001708984375 685.52001953125 684.03997802734375 682.52001953125 682.47998046875 683 683.47998046875 684.47998046875 685.47998046875 686 685.03997802734375 682.55999755859375 680.03997802734375 675.6400146484375 667.67999267578125 658.67999267578125 651.5999755859375 648.03997802734375 647.47998046875 648.96002197265625 656.239990234375 665.4000244140625 668.47998046875 666.5999755859375 663.03997802734375 661.03997802734375 659.03997802734375 656.55999755859375 653.55999755859375 651.03997802734375 649.03997802734375 647.03997802734375 645.52001953125 644.52001953125 642.08001708984375 639.52001953125 638.03997802734375 635.55999755859375 633.52001953125 632.52001953125 630.55999755859375 627.08001708984375 623.55999755859375 620.55999755859375 617.55999755859375 615.03997802734375 612.08001708984375 606.6400146484375 601.08001708984375 598.03997802734375 595.08001708984375 594.44000244140625 598.4000244140625 605.79998779296875 612.44000244140625 614.47998046875 615 615 615 615 615 615 614.52001953125 612.55999755859375 609.55999755859375 606.55999755859375 603.55999755859375 601.03997802734375 597.5999755859375 592.5999755859375 588.08001708984375 583.5999755859375 578.5999755859375 574.08001708984375 570.08001708984375 566.55999755859375 563.55999755859375 560.55999755859375 557.55999755859375 554.55999755859375 551.55999755859375 549.03997802734375 547.03997802734375 545.52001953125 544.03997802734375
1008.52001953125 1008 1008 1008.47998046875 1009.47998046875 1008.5599975585937 1006.0399780273437 1005 1004.52001953125 1003.0399780273437 1001.0399780273437 999.03997802734375 996.55999755859375 994.03997802734375 993 993 993 992.52001953125 990.55999755859375 988.03997802734375 986.52001953125 985.52001953125 985.96002197265625 986.03997802734375 983.55999755859375 982.47998046875 982.52001953125 981.52001953125 981.47998046875 981.52001953125 979.08001708984375 974.5999755859375 970.08001708984375 966.08001708984375 962.08001708984375 958.55999755859375 956.03997802734375 954.52001953125 954 953.52001953125 952.52001953125 952 951.52001953125 949.55999755859375 946.55999755859375 943.08001708984375 939.55999755859375 935.1199951171875 929.5999755859375 925.08001708984375 921.08001708984375 917.08001708984375 913.55999755859375 909.5999755859375 903.15997314453125 897.55999755859375 893.5999755859375 889.08001708984375 886.03997802734375 883.55999755859375 879.5999755859375 873.6400146484375 868.08001708984375 864.55999755859375 861.55999755859375 858.08001708984375 854.55999755859375 851.55999755859375 848.55999755859375 846.03997802734375 843.08001708984375 838.1199951171875 831.6400146484375 826.08001708984375 822.08001708984375 816.6400146484375 810.5999755859375 805.5999755859375 802.03997802734375 798.5999755859375 794.55999755859375 792.03997802734375 790.03997802734375 786.5999755859375 782.08001708984375 778.08001708984375 774.08001708984375 771.03997802734375 768.55999755859375 765.08001708984375 762.03997802734375 758.5999755859375 752.15997314453125 746.08001708984375 740.6400146484375 735.08001708984375 730.5999755859375 726.55999755859375 723.08001708984375 718.5999755859375 713.1199951171875 706.6400146484375 701.08001708984375 698.52001953125 697.52001953125 696.03997802734375 694.03997802734375 693 693.47998046875 694.47998046875 695.96002197265625 696.52001953125 695.03997802734375 692.55999755859375 690.52001953125 688.55999755859375 683.6400146484375 677.1199951171875 667.760009765625 657.15997314453125 651.08001708984375 648.03997802734375 647.47998046875 648.47998046875 655.719970703125 663.96002197265625 664.03997802734375 662.03997802734375 660.03997802734375 657.55999755859375 654.55999755859375 652.03997802734375 649.55999755859375 647.52001953125 646.03997802734375 644.52001953125 643.52001953125 641.55999755859375 639.03997802734375 636.08001708984375 632.55999755859375 630.52001953125 629.52001953125 627.08001708984375 623.55999755859375 621.03997802734375 618.55999755859375 616.03997802734375 614.52001953125 612.08001708984375 606.6400146484375 600.5999755859375 595.5999755859375 591.55999755859375 590 593.84002685546875 603.760009765625 611.91998291015625 614.47998046875 615 615 615 615 615 615 613.55999755859375 610.55999755859375 607.55999755859375 604.55999755859375 602.03997802734375 598.5999755859375 593.5999755859375 589.08001708984375 584.5999755859375 579.5999755859375 574.5999755859375 570.55999755859375 567.55999755859375 564.55999755859375 561.55999755859375 558.55999755859375 555.55999755859375 552.55999755859375 549.55999755859375 547.52001953125 546.03997802734375 544.52001953125 543.03997802734375
1009.47998046875 1010.9600219726562 1013.4400024414062 1015.9600219726562 1017 1015.5599975585937 1012.5599975585937 1010.52001953125 1010 1010 1009.0399780273437 1007.0399780273437 1005.0399780273437 1003.0399780273437 1002 1002.47998046875 1003 1002.0399780273437 999.55999755859375 997.03997802734375 995.52001953125 995 995 994.52001953125 993.52001953125 992.03997802734375 990.03997802734375 988.03997802734375 986.52001953125 985.03997802734375 982.55999755859375 979.08001708984375 974.5999755859375 970.55999755859375 968.03997802734375 966.03997802734375 964.52001953125 963.52001953125 962.52001953125 961.52001953125 960.52001953125 959.52001953125 958.03997802734375 956.52001953125 954.55999755859375 951.55999755859375 948.08001708984375 943.5999755859375 938.5999755859375 933.1199951171875 927.5999755859375 922.5999755859375 918.08001708984375 914.08001708984375 910.08001708984375 905.1199951171875 899.1199951171875 893.1199951171875 888.55999755859375 885.55999755859375 881.5999755859375 876.1199951171875 870.5999755859375 866.55999755859375 863.55999755859375 860.55999755859375 857.55999755859375 854.08001708984375 850.55999755859375 846.1199951171875 841.55999755859375 838.08001708984375 833.1199951171875 828.08001708984375 823.5999755859375 818.5999755859375 813.1199951171875 807.5999755859375 803.55999755859375 800.08001708984375 796.55999755859375 794.03997802734375 793 792.52001953125 789.1199951171875 784.08001708984375 780.08001708984375 775.5999755859375 771.55999755859375 768.08001708984375 764.55999755859375 761.55999755859375 756.15997314453125 750.55999755859375 746.1199951171875 741.55999755859375 738.55999755859375 735.08001708984375 731.08001708984375 725.6400146484375 718.6400146484375 712.1199951171875 707.55999755859375 706.47998046875 707.47998046875 707.52001953125 706.52001953125 706.96002197265625 707.52001953125 706.03997802734375 703.55999755859375 701.03997802734375 699.52001953125 697.08001708984375 694.03997802734375 692.03997802734375 688.1199951171875 682.5999755859375 676.15997314453125 666.719970703125 656.67999267578125 649.5999755859375 647 644.5999755859375 645.84002685546875 655.760009765625 661.03997802734375 659.03997802734375 657.03997802734375 655.03997802734375 653.03997802734375 650.55999755859375 648.03997802734375 647 646.03997802734375 644.52001953125 643.52001953125 641.08001708984375 637.08001708984375 632.5999755859375 629.03997802734375 627.03997802734375 624.55999755859375 622.03997802734375 620.03997802734375 618.03997802734375 616.03997802734375 614.52001953125 613.52001953125 611.55999755859375 607.1199951171875 601.5999755859375 596.1199951171875 591.55999755859375 588.55999755859375 590.3599853515625 601.20001220703125 611.4000244140625 614.47998046875 615 615.47998046875 616 616 615.52001953125 614.03997802734375 611.55999755859375 608.55999755859375 605.55999755859375 602.55999755859375 599.55999755859375 595.1199951171875 589.5999755859375 584.5999755859375 580.08001708984375 575.5999755859375 571.08001708984375 567.55999755859375 564.55999755859375 562.03997802734375 559.55999755859375 556.55999755859375 553.55999755859375 550.55999755859375 548.03997802734375 546.52001953125 545.03997802734375 543.52001953125 542.03997802734375
1015.9199829101562 1018.9600219726562 1021.4400024414062 1023.9600219726562 1025.47998046875 1025.0400390625 1022.0800170898437 1019.52001953125 1019 1018.52001953125 1017.52001953125 1015.5599975585937 1013.0399780273437 1012 1012.47998046875 1013 1012.52001953125 1011.0399780273437 1009.0399780273437 1007.0399780273437 1005.52001953125 1004.0399780273437 1002.0399780273437 1000.0399780273437 998.52001953125 997.03997802734375 995.03997802734375 993.03997802734375 990.55999755859375 988.03997802734375 985.55999755859375 983.03997802734375 980.55999755859375 978.03997802734375 976.52001953125 975.52001953125 974.52001953125 973.52001953125 973 972.52001953125 972 971.52001953125 970.03997802734375 966.5999755859375 962.08001708984375 959.03997802734375 956.08001708984375 952.08001708984375 947.1199951171875 941.5999755859375 935.15997314453125 928.5999755859375 924.08001708984375 919.5999755859375 915.55999755859375 911.5999755859375 905.6400146484375 898.6400146484375 893.08001708984375 888.5999755859375 883.1199951171875 878.08001708984375 873.5999755859375 869.08001708984375 866.03997802734375 863.08001708984375 860.52001953125 857.5999755859375 853.08001708984375 848.1199951171875 842.5999755859375 838.08001708984375 834.08001708984375 830.08001708984375 825.1199951171875 819.5999755859375 813.6400146484375 807.5999755859375 803.08001708984375 799.55999755859375 796.55999755859375 794.03997802734375 793 792.52001953125 790.08001708984375 786.08001708984375 782.08001708984375 777.5999755859375 773.55999755859375 769.5999755859375 765.55999755859375 762.55999755859375 758.5999755859375 754.55999755859375 751.55999755859375 747.5999755859375 744.03997802734375 741.55999755859375 736.15997314453125 728.15997314453125 721.1199951171875 714.6400146484375 713.4000244140625 716.96002197265625 718.96002197265625 720 718.08001708984375 715.52001953125 713.08001708984375 710.03997802734375 707.08001708984375 704.03997802734375 702.03997802734375 699.08001708984375 695.55999755859375 693.03997802734375 689.5999755859375 685.08001708984375 681.55999755859375 676.15997314453125 666.719970703125 655.719970703125 647.5999755859375 641.6400146484375 638 642.32000732421875 650.3599853515625 654 653.03997802734375 651.52001953125 650.52001953125 649.03997802734375 647.03997802734375 646 645.52001953125 644.52001953125 644 642.08001708984375 637.5999755859375 632.1199951171875 627.08001708984375 623.55999755859375 620.55999755859375 618.52001953125 617.03997802734375 615.52001953125 614.03997802734375 613 612.52001953125 611.03997802734375 607.5999755859375 602.5999755859375 597.1199951171875 591.5999755859375 588.03997802734375 588.91998291015625 598.67999267578125 610.3599853515625 614.47998046875 615 615.47998046875 616 615.52001953125 614.52001953125 612.55999755859375 609.55999755859375 606.55999755859375 603.55999755859375 600.55999755859375 596.5999755859375 591.5999755859375 586.1199951171875 580.5999755859375 575.5999755859375 571.08001708984375 567.55999755859375 564.55999755859375 562.03997802734375 560.03997802734375 557.55999755859375 554.55999755859375 551.55999755859375 549.03997802734375 547.03997802734375 545.52001953125 544.52001953125 543.52001953125 542.03997802734375
1022.4400024414062 1026.4000244140625 1030.43994140625 1032.9599609375 1034.47998046875 1034.52001953125 1033.0400390625 1031.52001953125 1030.52001953125 1029.52001953125 1027.56005859375 1024.56005859375 1022.0399780273437 1020.0399780273437 1019 1018.52001953125 1017.52001953125 1016.52001953125 1015.52001953125 1014.0399780273437 1012.52001953125 1011.0399780273437 1009.0399780273437 1006.5599975585937 1004.0399780273437 1002.0399780273437 1000.0399780273437 998.03997802734375 995.55999755859375 993.52001953125 992.03997802734375 990.03997802734375 988.03997802734375 986.03997802734375 985 984.52001953125 983.52001953125 982.52001953125 982 981.52001953125 981 980.52001953125 978.55999755859375 975.55999755859375 972.08001708984375 968.08001708984375 964.08001708984375 959.5999755859375 954.5999755859375 949.5999755859375 945.08001708984375 940.1199951171875 933.6400146484375 927.1199951171875 920.6400146484375 915.55999755859375 910.6400146484375 903.15997314453125 896.5999755859375 891.5999755859375 887.08001708984375 882.5999755859375 877.1199951171875 871.1199951171875 867.03997802734375 864.55999755859375 862.03997802734375 859.08001708984375 854.5999755859375 849.5999755859375 844.1199951171875 839.08001708984375 835.08001708984375 831.55999755859375 826.6400146484375 820.1199951171875 813.6400146484375 807.5999755859375 803.08001708984375 799.08001708984375 796.03997802734375 794.03997802734375 792.52001953125 791.52001953125 789.08001708984375 785.55999755859375 782.55999755859375 778.1199951171875 773.55999755859375 769.5999755859375 765.55999755859375 762.55999755859375 759.08001708984375 755.08001708984375 751.55999755859375 748.08001708984375 744.08001708984375 740.55999755859375 735.15997314453125 728.1199951171875 722.1199951171875 720.44000244140625 722.96002197265625 724 722.55999755859375 721 721 719.55999755859375 715.5999755859375 711.55999755859375 708.55999755859375 705.55999755859375 702.55999755859375 699.08001708984375 695.55999755859375 693.03997802734375 690.08001708984375 686.55999755859375 683.55999755859375 679.5999755859375 674.5999755859375 667.20001220703125 656.239990234375 645.20001220703125 638.55999755859375 636.52001953125 638.8800048828125 646.32000732421875 650.03997802734375 648.52001953125 647.52001953125 646.03997802734375 644.03997802734375 643 642.52001953125 642 642 641.52001953125 638.5999755859375 632.15997314453125 625.1199951171875 620.08001708984375 617.03997802734375 615.52001953125 614.03997802734375 613 612.03997802734375 611 610.52001953125 609.03997802734375 605.5999755859375 601.55999755859375 596.6400146484375 590.5999755859375 586.55999755859375 586.91998291015625 596.67999267578125 609.79998779296875 615 615 615.47998046875 615.52001953125 615 614.03997802734375 611.08001708984375 607.55999755859375 604.55999755859375 601.08001708984375 597.08001708984375 592.5999755859375 587.5999755859375 582.1199951171875 576.5999755859375 572.08001708984375 568.55999755859375 565.55999755859375 562.55999755859375 560.03997802734375 557.55999755859375 554.55999755859375 552.03997802734375 550.03997802734375 548.03997802734375 546.03997802734375 544.03997802734375 542.52001953125 541.52001953125 540.03997802734375
1028.9200439453125 1034.8399658203125 1039.9599609375 1041.47998046875 1042.47998046875 1042.52001953125 1042 1041.52001953125 1041 1041 1039.0799560546875 1034.5999755859375 1031.0400390625 1029.0400390625 1027.0400390625 1025.0400390625 1023.52001953125 1022.52001953125 1021.52001953125 1020.0399780273437 1018.52001953125 1017.0399780273437 1015.0399780273437 1013.0399780273437 1010.5599975585937 1008.0399780273437 1005.5599975585937 1003.52001953125 1002.0399780273437 1000.52001953125 999.52001953125 998.52001953125 997.03997802734375 995.03997802734375 993.52001953125 992.52001953125 991.52001953125 990.03997802734375 989 989 989 988.52001953125 986.55999755859375 983.08001708984375 979.55999755859375 976.08001708984375 971.5999755859375 966.5999755859375 961.5999755859375 956.5999755859375 952.08001708984375 948.08001708984375 943.5999755859375 937.6400146484375 930.6400146484375 924.1199951171875 916.67999267578125 907.20001220703125 899.1199951171875 894.55999755859375 891.08001708984375 886.5999755859375 881.5999755859375 875.6400146484375 870.08001708984375 866.55999755859375 863.55999755859375 859.5999755859375 855.08001708984375 850.1199951171875 844.5999755859375 839.5999755859375 835.55999755859375 832.08001708984375 826.6400146484375 820.1199951171875 814.1199951171875 808.1199951171875 802.5999755859375 798.55999755859375 796.03997802734375 793.55999755859375 791.03997802734375 790 787.5999755859375 783.55999755859375 780.55999755859375 776.1199951171875 771.55999755859375 768.08001708984375 764.55999755859375 762.03997802734375 758.1199951171875 753.55999755859375 750.55999755859375 747.08001708984375 742.5999755859375 738.55999755859375 733.6400146484375 729.52001953125 729.47998046875 730 730 729.52001953125 727.08001708984375 724.03997802734375 723 721.55999755859375 717.5999755859375 713.08001708984375 709.08001708984375 705.55999755859375 702.55999755859375 699.08001708984375 695.55999755859375 693.03997802734375 690.08001708984375 686.55999755859375 683.55999755859375 680.08001708984375 676.55999755859375 673.55999755859375 669.5999755859375 661.719970703125 649.280029296875 640.08001708984375 637.52001953125 638.44000244140625 640.47998046875 641.96002197265625 642.52001953125 641.03997802734375 639.52001953125 638.52001953125 638 638 638 637.52001953125 634.5999755859375 630.08001708984375 623.67999267578125 617.08001708984375 614.03997802734375 612.52001953125 611.52001953125 610.52001953125 609.52001953125 608.52001953125 607.52001953125 605.08001708984375 601.55999755859375 598.55999755859375 593.6400146484375 587.1199951171875 582.08001708984375 583.84002685546875 595.20001220703125 606.3599853515625 611.44000244140625 613 613.47998046875 614 613.52001953125 612.03997802734375 609.55999755859375 606.55999755859375 602.5999755859375 598.08001708984375 594.08001708984375 589.5999755859375 584.1199951171875 578.5999755859375 573.5999755859375 569.08001708984375 565.55999755859375 562.55999755859375 560.03997802734375 557.55999755859375 555.03997802734375 552.55999755859375 550.03997802734375 548.03997802734375 546.03997802734375 544.03997802734375 542.03997802734375 540.03997802734375 538.52001953125 537.03997802734375
